ply
format ascii 1.0
element vertex 1167
property float x
property float y
property float z
property uchar red
property uchar green
property uchar blue
end_header
0.558424 0.259621 -0.525262 238 202 115
-0.694502 0.261573 -0.524277 251 210 112
-0.634333 0.265857 -0.524622 247 198 128
-0.602929 0.265770 -0.525064 242 202 132
-0.564596 0.266241 -0.523962 244 212 119
-0.528165 0.268033 -0.524449 239 205 112
-0.414979 0.253673 -0.515842 249 196 124
-0.383795 0.255279 -0.515780 238 206 120
-0.355726 0.256968 -0.515453 250 204 115
-0.331596 0.257910 -0.515450 240 203 131
0.365189 0.266068 -0.525919 250 193 116
0.399490 0.265758 -0.525085 241 209 113
0.449336 0.265660 -0.524374 250 194 121
0.477218 0.265251 -0.524388 241 194 129
0.497764 0.265044 -0.521317 245 201 119
0.520274 0.264964 -0.523552 240 202 129
0.552210 0.264574 -0.524773 241 197 131
-0.589692 0.270855 -0.525930 251 210 131
-0.570798 0.271847 -0.524317 242 204 128
-0.540071 0.278072 -0.521332 243 204 122
-0.515483 0.273471 -0.523347 240 213 122
-0.465246 0.278609 -0.523516 243 211 117
-0.440294 0.273177 -0.524311 239 200 124
-0.332997 0.272607 -0.525127 244 204 120
0.293036 0.265296 -0.514241 249 196 113
0.352927 0.271742 -0.526024 249 200 119
0.408791 0.271887 -0.524815 239 196 120
0.438564 0.271934 -0.524502 245 214 131
0.475862 0.270491 -0.524641 240 198 113
0.503305 0.269204 -0.522031 252 210 128
-0.564216 0.277125 -0.523545 252 202 130
-0.527799 0.278603 -0.521539 247 213 126
-0.496579 0.278645 -0.523320 249 212 115
-0.430856 0.278768 -0.523284 244 213 130
-0.365396 0.279137 -0.523443 248 210 127
-0.334257 0.279236 -0.523614 239 208 117
-0.315445 0.276093 -0.523770 238 197 132
-0.302901 0.276284 -0.523963 249 212 130
-0.289608 0.269451 -0.516776 246 209 115
-0.283525 0.275181 -0.522325 238 206 126
-0.270197 0.274293 -0.517511 250 197 114
0.249183 0.267799 -0.514292 250 199 119
0.271025 0.266446 -0.514429 241 201 118
0.427398 0.276530 -0.524394 243 195 124
0.475802 0.273282 -0.524608 244 195 131
-0.557892 0.281516 -0.524095 240 207 130
-0.539786 0.282632 -0.522567 242 207 130
-0.515379 0.283877 -0.521890 238 212 115
-0.496601 0.284396 -0.522963 248 200 123
-0.427587 0.290306 -0.522633 244 196 116
-0.402727 0.290783 -0.521903 238 198 126
-0.368440 0.291029 -0.521611 240 195 131
-0.302820 0.285142 -0.523288 241 200 130
-0.277797 0.284404 -0.522907 245 212 122
-0.265466 0.282669 -0.522619 247 195 116
-0.252629 0.276131 -0.516982 242 203 116
-0.246549 0.281741 -0.522265 237 197 117
-0.234129 0.281114 -0.521318 251 201 118
-0.212420 0.277500 -0.515951 248 197 113
-0.200043 0.280689 -0.521536 244 206 129
-0.174946 0.277491 -0.515450 238 199 121
-0.165786 0.280413 -0.522429 242 213 129
-0.146877 0.277610 -0.514978 243 201 113
-0.121823 0.277872 -0.514481 249 203 112
0.155391 0.277031 -0.508337 248 211 128
-0.546972 0.284777 -0.523747 243 197 117
-0.490133 0.289580 -0.524004 240 204 125
-0.446368 0.289745 -0.522963 241 213 118
-0.331132 0.291115 -0.521833 238 205 127
-0.296555 0.291139 -0.522166 247 206 129
-0.278122 0.290897 -0.521992 246 196 113
-0.259380 0.290636 -0.522733 243 214 114
-0.234289 0.290359 -0.523251 238 197 130
-0.153408 0.290506 -0.525456 251 210 130
-0.134539 0.291070 -0.526110 238 204 120
-0.065694 0.278928 -0.514510 251 194 123
-0.028059 0.279872 -0.514298 237 207 130
0.015601 0.281205 -0.514804 243 195 114
0.093341 0.280229 -0.514610 238 196 124
-0.433592 0.294257 -0.523585 249 203 117
-0.401374 0.295534 -0.522682 246 211 117
-0.358486 0.294347 -0.521923 238 201 114
-0.321612 0.296180 -0.522251 248 197 128
-0.290454 0.296381 -0.521870 243 196 123
-0.259344 0.296660 -0.522867 243 197 127
-0.240445 0.297007 -0.522769 237 194 121
-0.188880 0.298072 -0.523650 247 213 125
-0.161900 0.297590 -0.524445 239 198 128
-0.385811 0.298042 -0.523140 237 210 120
-0.297731 0.298672 -0.522408 241 204 123
-0.238837 0.301285 -0.523327 251 201 124
-0.204231 0.302010 -0.523639 247 212 113
-0.154050 0.299592 -0.524686 243 210 123
-0.229454 0.303964 -0.523495 246 195 127
1.189176 -0.460587 -0.496212 245 207 123
-1.201661 -0.456443 -0.506922 246 212 114
1.197174 -0.456512 -0.512500 239 194 127
1.471273 -0.457128 -0.504908 237 208 126
-1.168819 -0.451244 -0.507995 240 213 128
1.198709 -0.454287 -0.509590 240 214 119
-1.184155 -0.442678 -0.508289 244 201 124
-1.181305 -0.438709 -0.503927 242 199 112
-1.176049 -0.435915 -0.507476 251 200 129
-1.165795 -0.439284 -0.504551 239 202 130
-1.160147 -0.433950 -0.507721 237 206 118
-1.154610 -0.429278 -0.508556 251 210 130
-1.193370 -0.416777 -0.501341 244 196 120
-1.190099 -0.410526 -0.507646 239 206 130
-1.104051 -0.405048 -0.508052 249 211 122
-1.188218 -0.401800 -0.507731 249 209 130
-1.200995 -0.392527 -0.508103 241 213 113
1.270207 -0.390760 -0.505056 252 201 129
-1.483177 -0.392152 -0.505056 251 205 130
-1.096443 -0.390483 -0.508262 241 201 129
1.458443 -0.361292 -0.508177 242 200 119
1.026356 -0.300217 -0.505616 243 206 117
-1.183240 -0.252142 -0.508241 245 204 128
1.099040 -0.254014 -0.508051 237 194 116
1.133515 -0.255379 -0.508123 246 199 128
-1.206682 -0.245036 -0.508046 246 213 128
1.191176 -0.249907 -0.508370 237 210 131
1.201751 -0.234194 -0.508502 250 199 115
-1.072301 -0.225753 -0.505067 251 210 116
-0.905761 -0.185832 -0.508082 252 212 116
0.877652 -0.167028 -0.504980 251 193 117
-0.862050 -0.148347 -0.508079 252 203 129
-0.847136 -0.139676 -0.507225 249 197 128
-0.833534 -0.136278 -0.505383 250 193 113
-0.831963 -0.132171 -0.508183 247 203 118
-0.824995 -0.118421 -0.507968 246 194 127
0.972029 -0.091140 -0.502115 242 203 126
0.970790 -0.079677 -0.508265 242 203 115
-0.908739 -0.068378 -0.509252 249 199 120
0.742856 -0.058602 -0.505005 243 202 118
0.736612 -0.054204 -0.505032 251 196 114
-1.209292 -0.052151 -0.508174 241 205 132
0.867793 -0.050639 -0.508085 244 197 125
1.204279 -0.055959 -0.505130 237 195 122
0.860838 -0.044937 -0.501816 244 196 116
-0.914751 -0.040809 -0.503078 246 213 131
0.705440 -0.032841 -0.504965 247 204 123
-0.699258 -0.026221 -0.504990 245 214 121
1.195250 -0.024725 -0.508006 242 196 122
0.912264 -0.029005 -0.507992 252 213 112
0.823701 -0.018931 -0.504966 241 205 120
-0.917059 -0.015985 -0.506031 247 198 117
0.672412 -0.010376 -0.505017 250 212 112
-1.469052 -0.001829 -0.504948 246 198 119
-0.811144 -0.007400 -0.508309 247 203 122
1.462542 0.003863 -0.505085 246 197 122
1.193583 0.002681 -0.508156 250 201 132
0.786062 0.006044 -0.508205 251 209 131
-1.470850 0.011136 -0.508049 245 199 118
-0.630508 0.017824 -0.505011 242 207 120
1.199675 0.012467 -0.505046 251 212 129
0.772084 0.018269 -0.508423 246 208 122
-0.601048 0.034531 -0.505011 244 213 131
0.976059 0.023117 -0.501770 244 213 116
-0.919301 0.037491 -0.508927 242 211 128
0.601648 0.034033 -0.501887 241 210 132
-1.205006 0.040230 -0.508441 239 207 131
-0.564711 0.045183 -0.508088 242 200 127
0.980299 0.042636 -0.507964 239 194 120
-0.990412 0.050355 -0.508535 243 196 116
-0.555622 0.050048 -0.508126 248 207 118
0.982394 0.048989 -0.507986 239 205 113
-1.464617 0.044227 -0.509125 237 195 122
-1.444408 0.045300 -0.509984 243 210 120
-1.437886 0.049760 -0.516962 250 211 125
0.563147 0.052458 -0.505019 248 196 120
0.923457 0.059535 -0.508153 246 211 125
-1.449024 0.057767 -0.518381 243 208 123
-1.425403 0.050430 -0.510953 242 202 124
-1.419521 0.057176 -0.515975 244 212 119
-1.408561 0.055260 -0.510308 245 209 128
0.988735 0.062708 -0.508343 248 212 112
1.404702 0.057476 -0.508513 244 209 130
1.438465 0.047510 -0.508600 240 196 120
-1.432216 0.064000 -0.517564 242 195 114
-1.412160 0.063991 -0.514364 242 205 121
0.760174 0.065050 -0.502031 246 211 130
1.404891 0.065890 -0.508270 240 213 113
-0.524843 0.073052 -0.504885 249 195 124
0.759586 0.071575 -0.505151 251 195 118
1.404502 0.070489 -0.502023 250 202 128
-1.401172 0.074366 -0.505976 243 208 118
-0.919788 0.075309 -0.508808 250 207 121
0.523431 0.077410 -0.501927 249 197 128
1.402921 0.074336 -0.508415 249 194 119
-1.022319 0.089907 -0.508489 240 205 115
1.398694 0.076762 -0.508390 250 201 127
-1.207556 0.094038 -0.508370 247 212 114
-0.477009 0.095160 -0.501798 248 207 126
1.192095 0.093936 -0.509395 244 208 121
-1.043353 0.103371 -0.492704 249 204 120
-0.459907 0.101996 -0.504948 245 211 121
0.920702 0.097905 -0.508030 240 205 127
1.178613 0.103305 -0.510518 239 197 115
-1.199321 0.104159 -0.508538 244 210 114
-1.049875 0.105781 -0.505253 244 205 119
-0.448883 0.106355 -0.504951 239 209 121
0.919458 0.104567 -0.507941 251 193 116
1.044769 0.109085 -0.508036 246 200 114
1.164677 0.105758 -0.509348 246 212 128
-1.184916 0.112892 -0.508919 247 195 130
-1.164221 0.114680 -0.508682 243 213 114
-1.133401 0.115352 -0.508484 238 203 131
-1.082428 0.113156 -0.505281 238 207 129
-0.441007 0.109531 -0.504944 239 194 121
0.763172 0.111604 -0.508304 250 200 115
1.075634 0.112802 -0.504974 244 199 126
1.095915 0.114101 -0.508295 239 208 113
1.121194 0.110339 -0.508175 242 207 116
-0.913357 0.116464 -0.508598 244 204 118
-0.905646 0.123981 -0.508202 246 204 131
-0.397351 0.126915 -0.504980 244 207 124
-1.258364 0.121348 -0.508321 241 200 127
-0.775725 0.123727 -0.501668 244 202 126
0.774865 0.131817 -0.508490 245 204 123
-0.872487 0.137403 -0.507596 244 196 126
-0.370587 0.137318 -0.505007 245 201 115
0.363593 0.134987 -0.508079 249 197 132
0.902912 0.139128 -0.507842 250 195 121
-0.846805 0.142478 -0.507350 245 211 121
-0.802387 0.143366 -0.507393 238 207 115
0.898114 0.142233 -0.507947 240 204 117
-1.199679 0.141540 -0.508327 251 204 126
0.870265 0.148749 -0.503174 244 203 121
1.211269 0.141812 -0.507668 245 204 120
-0.303785 0.159968 -0.505037 240 203 123
0.799373 0.154906 -0.508654 248 205 117
0.827442 0.155738 -0.501747 246 202 125
1.205590 0.144444 -0.507706 245 209 113
-1.163845 0.150884 -0.508310 251 195 122
1.126265 0.153623 -0.507958 247 198 118
1.169807 0.149873 -0.508163 249 210 129
-1.129059 0.156425 -0.505245 238 206 112
-0.252882 0.174223 -0.504999 249 214 125
1.083342 0.161081 -0.501990 248 196 129
1.100861 0.155666 -0.508043 238 200 114
-1.075846 0.165045 -0.508630 243 206 130
-0.229715 0.179675 -0.504996 241 195 115
0.185200 0.183902 -0.508132 245 208 123
-1.050039 0.179511 -0.501798 238 209 122
0.178834 0.185060 -0.504965 250 206 129
-1.026058 0.181730 -0.507997 248 206 129
-0.166656 0.192458 -0.504999 238 196 130
0.138238 0.192780 -0.504956 242 207 121
-0.999592 0.187632 -0.508385 249 213 127
-0.141997 0.196915 -0.504998 241 213 113
0.958032 0.189197 -0.507306 248 202 129
-0.104101 0.203206 -0.504968 238 212 114
-0.059646 0.210795 -0.508150 240 204 124
-0.003479 0.207281 -0.505077 251 208 124
0.031454 0.206686 -0.505004 251 203 120
0.932306 0.193566 -0.506474 245 204 124
-0.879726 0.203626 -0.508343 249 209 116
0.857462 0.202957 -0.505145 244 200 125
-0.861028 0.205540 -0.508330 247 198 127
0.806626 0.210018 -0.508405 251 196 127
-0.828207 0.211245 -0.508360 242 210 117
0.794256 0.213739 -0.508385 244 194 125
-0.814261 0.218227 -0.508351 251 207 130
0.744881 0.222349 -0.508052 243 197 119
0.773835 0.217924 -0.507998 243 195 116
-0.713878 0.228872 -0.502302 251 193 119
0.738657 0.223114 -0.508130 241 195 119
0.679507 0.231632 -0.504882 240 213 113
-0.671234 0.235337 -0.509896 248 211 121
-0.552108 0.247070 -0.508250 248 210 114
0.540884 0.245122 -0.504842 244 201 116
0.589211 0.241585 -0.508163 241 210 125
-0.527343 0.248876 -0.508222 244 212 122
-0.464997 0.250768 -0.505185 245 205 128
-0.415008 0.253205 -0.508478 248 199 116
0.399082 0.250267 -0.508109 240 210 114
0.449156 0.248858 -0.508060 247 199 125
0.496144 0.247909 -0.508196 239 212 123
-0.399394 0.253924 -0.508460 250 210 116
-0.355760 0.256197 -0.508718 249 212 114
-0.327223 0.262102 -0.508255 252 214 131
0.283546 0.265998 -0.507746 249 210 113
0.318797 0.264783 -0.507677 240 198 129
-0.303014 0.267585 -0.508576 240 195 124
-0.276838 0.270984 -0.508571 244 206 125
0.227111 0.269645 -0.507931 249 200 122
-0.258479 0.274310 -0.508838 252 213 125
-0.224815 0.276978 -0.508457 243 201 115
-0.174904 0.277145 -0.505203 251 196 115
0.143016 0.277983 -0.508346 244 202 121
0.195793 0.273108 -0.508133 245 198 116
-0.043705 0.279396 -0.508163 249 202 122
0.040334 0.281045 -0.508400 239 197 122
0.074616 0.280451 -0.508264 243 205 130
1.184914 -0.460556 -0.483189 249 197 116
-1.202350 -0.455892 -0.497568 248 208 128
1.468748 -0.455727 -0.501693 241 207 125
-1.203695 -0.452729 -0.499700 247 204 121
-1.169156 -0.451248 -0.501788 246 201 123
1.173528 -0.446941 -0.498864 247 195 120
-1.202581 -0.448013 -0.501578 241 204 121
-1.169593 -0.446331 -0.502137 247 194 127
1.198227 -0.449805 -0.494817 249 211 130
-1.169557 -0.437232 -0.502718 248 202 131
1.141270 -0.433108 -0.498759 239 196 125
-1.170623 -0.443448 -0.502512 242 195 117
1.121924 -0.427943 -0.495789 239 211 129
-1.196837 -0.428720 -0.501642 248 201 115
1.189032 -0.428507 -0.501987 249 208 115
-1.156019 -0.430813 -0.502287 250 208 122
1.110464 -0.418273 -0.494181 242 213 114
1.107765 -0.412406 -0.498843 238 196 118
-1.486228 -0.403290 -0.498749 239 198 114
-1.154384 -0.406095 -0.501140 237 207 129
-1.095724 -0.404087 -0.501969 240 211 113
1.077644 -0.405134 -0.498818 245 198 116
-1.188618 -0.401668 -0.501548 238 209 125
1.472716 -0.400261 -0.501876 242 213 128
-1.410975 -0.392370 -0.498810 247 193 120
-1.373529 -0.392163 -0.498815 247 198 124
-1.336054 -0.392055 -0.498800 243 200 130
-1.298569 -0.392037 -0.498828 242 208 119
-1.261115 -0.392068 -0.498813 244 195 126
-1.191920 -0.395776 -0.501618 247 197 122
1.067800 -0.398155 -0.497207 242 213 123
1.279562 -0.390829 -0.498831 250 204 127
1.316962 -0.390930 -0.498818 241 209 126
1.354426 -0.390919 -0.498821 244 214 120
1.404415 -0.391156 -0.498827 238 206 123
1.440170 -0.391180 -0.498822 241 193 123
1.193261 -0.388983 -0.498789 249 194 125
1.232834 -0.390270 -0.498813 246 211 115
-1.096495 -0.390571 -0.501947 247 213 112
1.090849 -0.377215 -0.498699 245 207 117
1.484785 -0.377137 -0.498795 242 206 132
-1.475519 -0.362337 -0.498812 237 195 131
-1.461414 -0.344409 -0.498846 246 206 115
1.057854 -0.333532 -0.501878 245 197 115
-1.065150 -0.333388 -0.495645 242 205 119
-1.461458 -0.318119 -0.498791 248 194 127
-1.461363 -0.305668 -0.498800 249 212 113
-1.461209 -0.293165 -0.498818 240 213 123
-1.461159 -0.280637 -0.498836 240 204 114
1.457163 -0.274367 -0.498758 248 200 126
-0.992959 -0.263874 -0.498779 252 213 123
-0.982201 -0.253962 -0.498800 243 206 126
-1.189557 -0.252140 -0.501978 248 197 116
-1.139343 -0.253115 -0.498804 249 205 130
0.966747 -0.245465 -0.495947 247 201 113
1.166158 -0.252268 -0.502085 237 199 120
-1.197507 -0.251545 -0.501891 245 201 115
-1.093167 -0.244876 -0.502125 241 209 125
1.191689 -0.247951 -0.502781 237 202 115
-1.460912 -0.230720 -0.498785 251 210 129
-1.208567 -0.224657 -0.498746 248 200 113
-1.460874 -0.218212 -0.498788 238 195 118
1.076798 -0.231521 -0.498752 245 206 130
-1.066622 -0.218481 -0.498744 237 210 119
1.202576 -0.215170 -0.498924 251 200 121
-1.061448 -0.212919 -0.498734 251 195 115
1.457045 -0.199475 -0.498801 244 193 114
-1.209401 -0.187065 -0.498722 251 212 120
1.457115 -0.186959 -0.498783 248 214 120
-0.899135 -0.180329 -0.498743 239 206 127
-1.024741 -0.180894 -0.498857 241 203 122
1.202752 -0.174589 -0.498978 246 210 115
-0.875432 -0.160232 -0.501851 241 204 130
-1.010523 -0.168474 -0.495854 239 208 117
-0.868743 -0.154372 -0.495546 239 204 128
0.859417 -0.150922 -0.498768 250 202 126
-0.861801 -0.148442 -0.497070 246 196 121
-1.209727 -0.137046 -0.498741 243 201 132
-0.833850 -0.137057 -0.497307 240 201 120
1.203115 -0.143379 -0.498966 239 208 114
-0.984911 -0.136958 -0.502260 239 210 131
-1.209695 -0.124558 -0.498765 251 196 128
1.203289 -0.130894 -0.498950 238 207 122
-0.977018 -0.123108 -0.502052 239 209 124
-0.975725 -0.116008 -0.501941 240 208 127
1.457235 -0.112004 -0.498771 244 203 127
-0.799639 -0.099690 -0.498741 239 196 118
0.795615 -0.097055 -0.495639 241 204 116
-1.460493 -0.093371 -0.498776 251 213 129
0.780552 -0.085593 -0.501840 245 198 119
-0.782614 -0.086563 -0.498713 248 210 113
-1.460460 -0.080890 -0.498777 245 209 121
0.767924 -0.076023 -0.498753 237 199 130
-1.460445 -0.068402 -0.498782 248 201 122
0.757003 -0.068362 -0.498740 245 197 118
-0.896351 -0.070337 -0.502203 243 198 130
-0.972453 -0.055997 -0.501914 239 195 124
0.885777 -0.064832 -0.501809 241 194 129
-1.207988 -0.045054 -0.501965 238 211 125
0.867999 -0.050445 -0.495572 240 205 116
1.458287 -0.046278 -0.501848 246 195 130
-0.915342 -0.034624 -0.503024 247 212 125
1.202516 -0.031126 -0.501789 247 207 113
-0.841994 -0.032644 -0.498876 246 196 122
0.912111 -0.029050 -0.498726 244 200 121
-0.972599 -0.027626 -0.495726 239 207 125
-0.702096 -0.028267 -0.495650 238 203 118
-1.199846 -0.015826 -0.502671 249 198 112
1.194801 -0.020855 -0.495552 251 209 132
-0.974420 -0.002105 -0.498896 249 202 115
0.805658 -0.006839 -0.498719 243 212 124
-0.919512 0.018779 -0.502757 251 213 124
0.973920 0.007226 -0.495707 245 212 122
0.918974 0.008765 -0.501866 242 207 120
-1.470913 0.011345 -0.501681 239 201 117
0.779400 0.011214 -0.502025 242 202 125
1.204742 0.020156 -0.498716 249 211 122
-0.780021 0.017975 -0.502008 240 195 121
-0.766792 0.031644 -0.501900 250 202 118
0.922074 0.034083 -0.498785 246 212 132
-0.920481 0.040653 -0.502677 240 208 117
0.579445 0.046269 -0.501830 245 203 126
-1.479172 0.042516 -0.502622 249 211 121
0.567140 0.050159 -0.501890 246 205 125
0.763511 0.046200 -0.502158 237 201 125
-1.475290 0.044572 -0.502608 242 194 129
-1.437791 0.046230 -0.502115 247 205 119
-1.207358 0.057170 -0.498981 249 203 120
-1.418807 0.050859 -0.502280 250 198 120
-0.997017 0.062774 -0.499077 239 197 123
0.989122 0.062708 -0.501752 238 211 113
1.411056 0.050472 -0.502197 251 214 123
-1.208426 0.065207 -0.502128 242 210 131
1.205066 0.066689 -0.501759 241 212 119
-0.920495 0.078423 -0.502592 247 194 118
1.203796 0.073496 -0.501914 247 211 126
-1.016921 0.085801 -0.502241 237 200 118
1.201667 0.080305 -0.502073 244 205 122
-1.393561 0.079782 -0.497495 241 202 115
1.011450 0.088497 -0.498620 246 196 117
-1.362352 0.085228 -0.502155 243 200 130
-0.768224 0.091812 -0.489342 247 213 121
1.193064 0.094380 -0.502533 251 201 125
-1.036834 0.100364 -0.486447 238 212 132
1.186952 0.101399 -0.503601 239 199 125
-1.192374 0.109936 -0.501981 243 208 127
1.037481 0.107611 -0.501740 248 195 129
1.127314 0.109075 -0.501762 247 199 121
1.163764 0.106474 -0.502190 245 206 119
1.351404 0.091907 -0.495860 249 198 120
-1.185085 0.113419 -0.502134 249 211 116
-1.158022 0.114985 -0.495968 248 213 122
-1.133281 0.115364 -0.502010 251 210 129
-0.916899 0.111794 -0.502754 245 196 122
1.069354 0.111478 -0.495563 242 213 114
-1.292516 0.108514 -0.498897 245 205 120
0.410156 0.120498 -0.498782 241 211 129
1.286826 0.112934 -0.501927 237 208 127
-0.898325 0.128166 -0.502031 249 204 115
-1.256144 0.121840 -0.498912 244 205 128
0.383177 0.128983 -0.495678 247 197 130
-1.246769 0.125133 -0.501980 245 197 112
-0.866044 0.138531 -0.501578 249 208 131
0.905841 0.136605 -0.502157 238 212 115
-1.218619 0.135218 -0.495797 239 206 130
-0.827289 0.142932 -0.500844 240 209 132
-0.795692 0.142904 -0.501425 246 205 126
0.890666 0.144392 -0.501794 251 195 130
-1.206314 0.139208 -0.495800 242 209 129
0.793647 0.151604 -0.502292 239 203 121
-1.186036 0.149978 -0.502121 237 201 128
0.807764 0.157876 -0.502281 251 212 130
0.846577 0.152744 -0.495464 238 204 128
1.200120 0.146658 -0.501483 246 205 115
-1.138426 0.154660 -0.502052 250 203 120
1.144767 0.152521 -0.498728 241 205 119
0.239680 0.170976 -0.497210 251 197 127
1.126180 0.153904 -0.501756 247 201 121
-1.075841 0.164159 -0.496019 241 195 114
1.079978 0.163847 -0.502001 247 205 117
0.191491 0.182306 -0.498740 242 198 131
-1.055175 0.176710 -0.495666 243 198 129
-1.044880 0.180527 -0.501657 244 195 126
-1.026149 0.181958 -0.501785 247 213 114
0.991199 0.182340 -0.498867 245 201 116
0.949611 0.190334 -0.496251 242 203 120
-0.085322 0.205945 -0.497202 244 212 124
0.064876 0.203893 -0.498746 244 197 131
0.919877 0.194891 -0.492689 237 213 114
-0.906250 0.200570 -0.497321 241 212 126
0.882320 0.199369 -0.501933 243 209 115
0.806785 0.209971 -0.502052 238 196 118
0.845023 0.204247 -0.492612 240 206 114
0.783611 0.215800 -0.500474 244 212 115
-0.776727 0.219804 -0.498947 237 206 113
-0.732792 0.226329 -0.497480 239 206 130
-0.689364 0.230466 -0.495954 241 213 119
0.673261 0.232592 -0.501783 248 195 127
-0.608187 0.241039 -0.501821 244 198 114
0.615734 0.239468 -0.497217 240 204 116
-0.601933 0.241988 -0.495633 246 200 119
-0.515159 0.249317 -0.495795 241 201 129
-0.490051 0.252346 -0.502005 249 197 126
-0.421266 0.252527 -0.502116 247 209 122
0.369399 0.251795 -0.495626 241 213 125
0.508309 0.247919 -0.501705 246 200 124
-0.331443 0.257515 -0.502217 240 212 127
0.308720 0.265981 -0.501650 245 196 129
-0.320519 0.267367 -0.502148 238 214 122
-0.302981 0.267310 -0.502115 237 204 117
0.242896 0.268764 -0.501714 247 210 124
0.277317 0.266937 -0.501650 241 202 120
-0.153048 0.277259 -0.498918 239 198 121
-0.112388 0.277881 -0.495761 241 204 116
-0.060931 0.278993 -0.497255 247 205 115
-0.003196 0.280641 -0.492611 249 202 130
-1.198172 -0.456132 -0.498428 252 198 122
1.180782 -0.455444 -0.492575 247 206 129
1.475815 -0.458943 -0.486315 243 195 116
-1.203844 -0.451112 -0.495888 249 213 127
-1.155390 -0.448211 -0.495299 242 203 120
-1.202944 -0.447439 -0.495309 245 212 115
-1.173205 -0.440574 -0.496034 237 208 114
-1.179729 -0.434400 -0.496028 249 199 128
1.474633 -0.434551 -0.492588 252 211 124
1.113905 -0.423236 -0.492692 248 213 112
1.474859 -0.420976 -0.487914 241 205 128
-1.147674 -0.414650 -0.496409 246 197 128
-1.172077 -0.405699 -0.494325 238 210 120
-1.148640 -0.410540 -0.496380 241 210 131
-1.076641 -0.401544 -0.495356 239 209 128
-1.190049 -0.406362 -0.495180 252 197 114
-1.166683 -0.402192 -0.495069 240 199 117
-1.207981 -0.392355 -0.492563 246 204 128
1.187670 -0.402495 -0.492615 244 211 114
1.467077 -0.391366 -0.495683 238 196 123
-1.483463 -0.392325 -0.483079 238 203 127
-1.096486 -0.390589 -0.495764 251 194 113
1.084186 -0.388588 -0.492548 239 197 114
1.075591 -0.354178 -0.492489 239 213 124
1.457817 -0.352471 -0.495638 237 209 117
1.018266 -0.292022 -0.492578 248 200 131
0.984176 -0.260839 -0.488076 242 214 127
1.099098 -0.253836 -0.492465 241 210 126
0.955581 -0.235604 -0.487899 251 196 122
1.196480 -0.246263 -0.497181 241 195 122
1.065540 -0.220161 -0.495686 249 206 127
-1.048227 -0.200807 -0.489301 243 200 113
0.882429 -0.171493 -0.490974 244 202 131
-1.004410 -0.162424 -0.495953 252 209 114
0.994935 -0.156133 -0.495939 238 209 119
-0.846880 -0.141203 -0.495552 248 201 116
0.986648 -0.142832 -0.492953 238 194 123
-0.829580 -0.125692 -0.495549 246 205 130
-0.825417 -0.119143 -0.495588 245 207 124
-0.805844 -0.104300 -0.495557 244 208 123
-0.776758 -0.082293 -0.495620 239 198 120
0.969815 -0.071801 -0.491161 241 197 126
-0.895634 -0.070304 -0.496032 248 193 117
1.204340 -0.068435 -0.489502 241 199 129
-0.886565 -0.064865 -0.495959 249 197 116
-0.867685 -0.052170 -0.495854 243 210 124
-1.209071 -0.052248 -0.492471 249 208 131
0.717857 -0.041704 -0.495519 239 207 120
0.908934 -0.041661 -0.495621 242 210 124
-0.850864 -0.039858 -0.491086 246 213 113
1.202024 -0.030832 -0.495368 243 204 118
1.198931 -0.028067 -0.495315 242 206 121
-1.200872 -0.021452 -0.496715 246 199 121
-0.918606 -0.015859 -0.496529 238 203 125
0.835646 -0.026725 -0.492504 247 209 128
-1.468028 -0.007706 -0.492505 250 201 119
1.194158 -0.014765 -0.495678 238 203 118
-1.202671 -0.003443 -0.496145 241 208 121
1.193415 -0.002922 -0.495758 237 203 123
-0.975150 0.004209 -0.489531 239 207 115
1.193672 0.002784 -0.495740 238 203 114
0.630263 0.016853 -0.495636 245 207 123
-0.977645 0.017152 -0.495809 246 207 115
0.786176 0.006057 -0.495653 237 211 125
1.464404 0.016313 -0.495597 237 211 127
0.771871 0.017641 -0.495974 244 209 131
-0.920799 0.031293 -0.496226 243 205 115
0.766982 0.026299 -0.496037 251 200 124
-1.481812 0.034866 -0.495875 245 206 125
1.205543 0.034464 -0.483162 246 204 128
-0.921182 0.043827 -0.496193 245 200 123
-0.579905 0.046457 -0.495671 247 208 123
-0.559090 0.047880 -0.493958 245 205 120
-1.476811 0.043005 -0.496359 250 196 121
-0.550852 0.052874 -0.495710 245 213 128
-1.470626 0.043491 -0.496311 247 212 126
-1.444120 0.044436 -0.492893 241 198 119
1.461437 0.046409 -0.496587 248 194 129
-0.532652 0.064855 -0.495705 242 203 113
1.205498 0.060013 -0.495480 240 206 131
1.419165 0.048222 -0.489868 246 212 115
-0.921336 0.069016 -0.496122 245 195 120
0.994146 0.069394 -0.492439 241 198 112
-0.524744 0.072536 -0.483162 250 195 126
0.997351 0.073088 -0.487750 237 207 116
1.404472 0.070384 -0.495795 245 201 113
0.922871 0.078645 -0.489424 250 201 127
-1.209967 0.078021 -0.492842 242 207 125
-1.020260 0.089112 -0.492779 249 200 123
1.198772 0.087393 -0.495824 241 210 116
-1.368761 0.083149 -0.495812 248 210 118
0.921866 0.091361 -0.489513 237 202 130
1.383746 0.081573 -0.495821 240 209 115
-1.203302 0.101090 -0.495821 242 196 121
0.921093 0.097856 -0.489534 248 196 115
-1.323518 0.096852 -0.491179 250 208 124
-1.049877 0.106373 -0.483342 246 201 113
-0.770668 0.104639 -0.495510 242 199 126
0.760874 0.104273 -0.492633 250 201 126
1.037592 0.107377 -0.495576 239 206 127
1.151841 0.106625 -0.495440 245 211 120
1.178458 0.108887 -0.496260 244 206 118
-1.177744 0.115300 -0.495735 239 201 122
-1.139487 0.115364 -0.495804 252 212 128
-1.082458 0.113594 -0.492722 244 210 130
0.762670 0.111445 -0.495849 249 198 125
1.082271 0.113642 -0.495663 247 207 131
1.102343 0.112928 -0.495591 239 210 121
1.318251 0.101778 -0.489568 251 205 114
-1.127020 0.115658 -0.495828 251 195 115
-0.417454 0.118781 -0.492496 239 210 112
1.299379 0.108422 -0.491037 239 210 127
-0.776016 0.123715 -0.489250 249 213 118
0.405464 0.122050 -0.489456 248 211 125
1.282937 0.114500 -0.492534 243 213 132
-0.778393 0.130914 -0.495585 250 200 113
-0.878741 0.134897 -0.495674 249 205 117
-0.859369 0.139589 -0.495338 247 203 131
-0.361195 0.140885 -0.495656 242 206 114
1.249363 0.127482 -0.492578 252 198 115
-0.833726 0.141020 -0.491484 243 214 115
-0.796008 0.142320 -0.495315 240 212 130
0.344532 0.140727 -0.491005 239 200 123
0.884075 0.145256 -0.489183 239 195 131
0.307702 0.151766 -0.492552 242 199 119
1.211192 0.142232 -0.489586 252 200 115
-0.313996 0.156823 -0.492528 248 197 115
0.305969 0.152267 -0.487891 242 209 127
0.815458 0.157276 -0.495672 252 195 126
0.840300 0.153541 -0.489207 245 199 115
-1.181463 0.152330 -0.489588 237 203 115
0.276083 0.160921 -0.492539 249 203 132
1.166614 0.150457 -0.489360 246 194 120
-1.107407 0.159217 -0.489654 247 194 115
0.251058 0.167884 -0.492510 252 207 115
1.116752 0.154906 -0.492423 249 207 124
-1.067504 0.166485 -0.496047 243 212 119
0.221231 0.175548 -0.487855 249 200 127
-0.226162 0.180345 -0.492499 242 206 125
0.181300 0.184412 -0.495572 249 203 122
1.050756 0.170788 -0.491041 240 206 115
-0.204194 0.185093 -0.492522 239 197 112
0.171045 0.186365 -0.490924 241 204 119
-1.049872 0.179670 -0.495669 238 213 113
-1.033037 0.181224 -0.495729 237 204 122
-0.157278 0.194074 -0.492511 247 196 129
0.116292 0.196433 -0.495581 243 206 127
0.999010 0.180710 -0.492636 237 211 121
-0.119709 0.200525 -0.492516 245 204 116
0.942514 0.191682 -0.494835 242 200 123
-0.935869 0.197006 -0.489630 250 200 116
-0.066921 0.209131 -0.492493 238 211 120
0.009198 0.208250 -0.492560 239 211 113
0.050317 0.204952 -0.492525 247 212 126
0.932474 0.193062 -0.490908 243 213 113
-0.887529 0.202541 -0.487948 251 212 113
0.860532 0.202433 -0.492584 241 211 129
-0.870330 0.204442 -0.495776 238 195 125
0.794213 0.213405 -0.495765 241 212 127
-0.776668 0.219618 -0.489568 240 205 113
0.744855 0.222352 -0.486313 246 203 123
0.716821 0.226799 -0.492507 238 196 117
-0.702038 0.229103 -0.483582 246 213 116
0.691987 0.230285 -0.495677 247 210 122
-0.636345 0.238401 -0.492566 239 205 119
0.600099 0.240877 -0.489334 252 205 129
0.651426 0.235469 -0.495615 239 197 131
-0.577001 0.244577 -0.483258 237 204 116
0.529331 0.246695 -0.492319 250 199 132
0.567441 0.243625 -0.492381 245 204 117
-0.527370 0.248758 -0.489565 239 206 120
-0.465075 0.250504 -0.492701 241 212 125
-0.408775 0.252913 -0.492741 243 197 112
0.402248 0.250444 -0.492462 246 199 121
0.439794 0.249527 -0.492379 237 205 113
0.486685 0.248818 -0.492274 238 201 116
-0.355831 0.255124 -0.494495 246 197 113
-0.326956 0.262104 -0.495900 243 208 128
-0.320449 0.267162 -0.495750 240 213 132
0.203679 0.272451 -0.494057 237 201 114
0.253839 0.268435 -0.487765 243 203 119
0.302466 0.266251 -0.495506 249 213 118
-0.252249 0.274433 -0.495929 241 201 119
-0.190506 0.276704 -0.492689 239 202 113
-0.099886 0.278168 -0.495774 240 199 118
0.161642 0.276195 -0.492651 244 212 127
-0.071804 0.278738 -0.495749 237 212 123
-0.015574 0.280358 -0.492632 239 195 113
0.031032 0.280896 -0.492644 244 197 123
0.074652 0.280224 -0.483249 245 213 126
0.124362 0.278888 -0.495810 251 205 117
1.196186 -0.457796 -0.489384 238 209 120
-1.203449 -0.455685 -0.486423 243 197 132
-1.166713 -0.453104 -0.489190 250 210 118
1.486252 -0.455892 -0.486319 247 204 113
-1.204351 -0.451989 -0.489445 237 196 115
1.173468 -0.446665 -0.483189 248 206 131
-1.475443 -0.442557 -0.486325 242 213 116
-1.149210 -0.444009 -0.488841 250 196 119
1.468922 -0.448611 -0.489408 248 210 116
-1.201122 -0.441766 -0.485992 243 210 112
1.147779 -0.436249 -0.486267 248 213 131
1.472129 -0.442086 -0.483115 248 195 129
-1.199187 -0.435094 -0.486015 250 205 118
1.127992 -0.428959 -0.489472 241 210 114
1.191974 -0.435798 -0.476912 250 209 113
-1.177566 -0.425500 -0.489775 240 198 124
1.497262 -0.427253 -0.486298 237 213 112
-1.149572 -0.420364 -0.489459 239 196 121
1.188252 -0.415205 -0.486315 242 199 123
1.107657 -0.412323 -0.480067 248 210 125
-1.170025 -0.404747 -0.488323 242 203 118
-1.104524 -0.405705 -0.489310 250 207 125
-1.076779 -0.400831 -0.487081 243 198 130
1.089229 -0.406104 -0.486364 239 200 112
-1.161560 -0.401403 -0.492205 239 211 131
1.474292 -0.407813 -0.473857 244 204 126
-1.459679 -0.392305 -0.486322 244 207 127
-1.429648 -0.392401 -0.486336 247 196 120
-1.386014 -0.392259 -0.486330 244 213 118
-1.336070 -0.392068 -0.486315 245 198 118
-1.298584 -0.391986 -0.486336 250 203 121
-1.254920 -0.392068 -0.486327 245 196 118
-1.220473 -0.392164 -0.486315 244 204 128
1.251595 -0.390543 -0.486328 240 209 112
1.316964 -0.390924 -0.486330 244 210 125
1.352872 -0.390834 -0.486358 238 211 116
1.391905 -0.391020 -0.486324 238 209 113
1.429325 -0.391210 -0.486328 240 209 125
-1.486542 -0.403293 -0.478428 239 211 127
1.232834 -0.390270 -0.486328 242 209 129
-1.107560 -0.385303 -0.489445 248 201 116
1.078751 -0.390883 -0.480124 249 211 114
1.087689 -0.385235 -0.483253 245 193 117
1.484791 -0.377293 -0.480141 250 198 124
1.458813 -0.361337 -0.489357 251 210 121
-1.077182 -0.346222 -0.486294 246 206 126
-1.461402 -0.342878 -0.486340 245 208 112
1.457817 -0.339998 -0.486309 250 208 118
-1.055493 -0.323585 -0.486285 245 204 114
1.046247 -0.320819 -0.483169 251 206 129
1.457423 -0.308785 -0.486319 237 204 115
-1.461207 -0.293182 -0.486310 238 213 117
1.018281 -0.292039 -0.483208 240 213 123
-1.001265 -0.271709 -0.489393 238 195 113
1.457237 -0.271254 -0.486294 237 213 125
1.457328 -0.258771 -0.486292 242 214 118
-1.161391 -0.252820 -0.486295 240 195 126
-1.126663 -0.252673 -0.486268 237 200 120
0.973208 -0.251122 -0.480325 245 210 124
1.144254 -0.254326 -0.486357 249 206 124
-1.207837 -0.240802 -0.489345 247 208 120
-1.189565 -0.252140 -0.483121 241 201 130
-0.959074 -0.232751 -0.487867 239 195 123
1.197159 -0.246001 -0.491784 248 193 126
-1.460981 -0.230738 -0.486304 241 205 118
0.948955 -0.230199 -0.486361 241 202 118
-1.076857 -0.231336 -0.486400 244 204 115
-1.072094 -0.225216 -0.487864 242 210 120
1.076908 -0.231531 -0.489370 237 204 114
-1.066691 -0.218355 -0.489373 251 194 124
1.065635 -0.220099 -0.470633 244 210 129
0.911976 -0.198232 -0.483286 239 214 126
-1.209032 -0.199579 -0.486249 243 206 126
1.050090 -0.206336 -0.481647 245 210 112
1.045516 -0.202325 -0.486337 241 210 130
-1.209223 -0.187077 -0.486258 241 199 127
-1.460751 -0.180773 -0.486313 250 196 117
1.026002 -0.185595 -0.486376 251 208 128
-1.209401 -0.174582 -0.486258 244 211 128
-1.023299 -0.179867 -0.486385 249 209 118
1.203053 -0.168325 -0.486400 242 206 120
1.010355 -0.172113 -0.486433 244 195 119
-0.875063 -0.160544 -0.483051 239 199 125
0.997501 -0.160034 -0.477128 241 198 130
-1.209599 -0.149549 -0.486277 239 209 121
-0.854861 -0.143006 -0.489325 240 202 123
0.849212 -0.142181 -0.486283 242 208 113
-1.209599 -0.137055 -0.486277 246 194 113
-0.832848 -0.135675 -0.488473 240 200 126
-0.983656 -0.137369 -0.490174 245 211 121
1.457051 -0.127660 -0.489430 239 197 125
-0.829412 -0.125628 -0.489435 244 196 123
1.203704 -0.118436 -0.486429 251 204 131
-0.818188 -0.113842 -0.489298 244 210 123
-0.975018 -0.109469 -0.486292 250 200 131
1.203935 -0.105929 -0.486415 242 208 129
-0.801068 -0.101030 -0.486232 243 199 115
-0.787119 -0.090165 -0.486244 251 206 131
-1.209449 -0.085489 -0.486283 248 206 120
1.457450 -0.094865 -0.484744 247 206 115
0.760504 -0.071032 -0.481570 237 213 122
1.204292 -0.077805 -0.486387 247 203 122
-0.900838 -0.073513 -0.489895 238 204 123
1.457820 -0.058854 -0.483121 247 197 131
-0.972534 -0.056021 -0.486309 246 198 120
0.736300 -0.054332 -0.489298 251 201 114
0.969560 -0.065401 -0.486505 242 200 117
0.724051 -0.046196 -0.489318 248 202 131
-1.460351 -0.046608 -0.486298 246 207 116
-0.917727 -0.047015 -0.484086 246 206 114
0.907591 -0.047648 -0.486342 238 212 129
0.853721 -0.039481 -0.489379 249 195 112
-1.203844 -0.032307 -0.490255 245 194 113
0.908845 -0.041616 -0.483229 250 207 125
-1.202458 -0.026845 -0.490530 237 206 112
-0.840035 -0.031219 -0.484851 240 203 125
0.911962 -0.029060 -0.483178 241 199 112
-1.460259 -0.027566 -0.480045 250 213 123
1.460798 -0.020402 -0.473851 239 195 129
-0.827700 -0.021092 -0.486393 243 195 117
-1.202258 -0.009621 -0.490071 241 196 125
-0.667784 -0.004947 -0.486334 251 203 125
1.193598 -0.008765 -0.489333 240 195 121
0.649071 0.005267 -0.489460 239 198 127
-1.470724 0.007844 -0.489346 243 196 131
0.973077 0.000965 -0.486393 247 208 129
-0.920615 0.012552 -0.489868 249 212 125
0.974219 0.010431 -0.486346 246 209 112
-1.476391 0.018625 -0.489267 250 204 124
0.630218 0.016768 -0.483118 246 204 122
-1.478123 0.024019 -0.486174 252 196 131
0.611438 0.028283 -0.486306 249 195 129
1.204573 0.020249 -0.489378 243 205 122
0.766763 0.026366 -0.489649 252 208 122
0.976170 0.023113 -0.489411 243 203 119
-0.921774 0.037579 -0.483475 251 210 127
0.592606 0.038875 -0.480066 238 199 128
-1.479466 0.039657 -0.490014 243 205 125
-0.566585 0.046505 -0.491805 245 198 121
0.762854 0.046232 -0.486495 246 202 114
-1.206052 0.042349 -0.485931 249 209 112
-0.571677 0.047070 -0.489691 247 202 131
0.572690 0.047901 -0.489354 251 198 127
-1.475231 0.043050 -0.490128 246 194 127
-1.207489 0.054024 -0.483336 250 209 122
0.985532 0.055890 -0.486225 248 199 115
1.444903 0.046145 -0.489784 251 205 116
-1.412460 0.051977 -0.489769 247 208 118
-0.996241 0.062713 -0.480262 251 203 120
-0.532684 0.064924 -0.489646 244 201 118
0.923120 0.053157 -0.489315 249 196 130
1.410761 0.050076 -0.489718 245 201 128
-0.765277 0.066221 -0.489450 242 210 121
1.204495 0.066662 -0.483102 244 196 122
-0.921765 0.075286 -0.486600 238 199 131
0.536146 0.071335 -0.473803 238 197 112
-1.010843 0.080953 -0.486516 248 213 125
1.401639 0.073990 -0.483379 243 199 129
-0.498818 0.085779 -0.486325 240 208 124
1.198749 0.087435 -0.489358 242 204 122
-1.208942 0.092598 -0.489585 239 194 122
0.485846 0.093162 -0.486358 245 205 125
1.193463 0.094556 -0.489133 247 213 127
-1.356235 0.087007 -0.486427 247 200 128
-0.768403 0.091983 -0.476770 249 198 115
1.365157 0.087460 -0.486498 241 214 113
-0.920430 0.104282 -0.489874 238 203 128
0.451235 0.106585 -0.480108 238 200 130
1.139700 0.107369 -0.476815 245 209 117
1.177050 0.108674 -0.488302 243 211 131
-1.306261 0.101139 -0.474023 246 209 124
-1.158070 0.115363 -0.489588 250 194 124
-1.076039 0.113104 -0.473930 239 213 131
-0.436169 0.111080 -0.483192 250 193 124
1.069259 0.111265 -0.489337 245 204 127
0.765760 0.118216 -0.489576 250 201 121
-0.904980 0.125746 -0.490071 241 195 119
0.914944 0.123996 -0.489771 252 209 115
-0.778350 0.130824 -0.489282 240 199 112
0.379159 0.130165 -0.486312 245 213 125
0.911431 0.131580 -0.489745 238 205 115
-0.872367 0.136809 -0.489673 248 196 122
-0.852647 0.139740 -0.488995 243 198 115
0.360521 0.135831 -0.486321 242 206 113
-0.833649 0.139185 -0.482200 250 209 117
-0.808789 0.140717 -0.489124 242 200 132
-0.348563 0.145442 -0.483169 243 199 131
1.224685 0.135741 -0.489558 240 196 128
0.846617 0.152735 -0.489154 249 206 116
-1.185997 0.149776 -0.489547 247 208 113
0.815610 0.156778 -0.489303 252 211 121
1.200135 0.147528 -0.489288 245 197 119
1.157231 0.151426 -0.486285 247 193 117
-1.101198 0.159905 -0.489640 238 194 122
-1.068811 0.165447 -0.489744 241 195 128
1.074811 0.165733 -0.486231 252 207 131
-1.044774 0.181076 -0.486382 240 208 123
0.110028 0.197414 -0.486201 238 202 126
-0.040265 0.208319 -0.489454 238 204 114
0.902390 0.196946 -0.486378 251 204 113
-0.839166 0.207544 -0.483229 243 203 126
-0.823965 0.215220 -0.486379 245 199 130
-0.814317 0.217654 -0.489607 243 211 115
-0.789311 0.218163 -0.489594 240 201 128
0.695073 0.229857 -0.486363 251 193 120
-0.682275 0.231212 -0.489697 248 197 132
-0.515148 0.248969 -0.483438 239 205 117
-0.471932 0.250328 -0.483316 243 209 131
0.339717 0.253105 -0.486352 249 212 115
0.467920 0.249290 -0.486124 241 201 127
-0.324100 0.265602 -0.483376 240 204 116
-0.315326 0.267855 -0.489430 241 202 120
-0.264533 0.272294 -0.489579 238 199 124
-0.124905 0.277544 -0.486337 242 204 121
0.199059 0.272901 -0.489412 244 204 132
-1.199096 -0.455859 -0.483286 246 206 118
-1.160617 -0.452102 -0.479709 240 195 115
-1.191059 -0.448989 -0.483454 241 207 119
1.466357 -0.453015 -0.483177 245 194 124
1.198305 -0.448634 -0.483285 247 201 115
-1.172197 -0.441532 -0.483889 239 212 113
-1.174699 -0.431741 -0.484510 245 195 113
1.474708 -0.434626 -0.483220 250 200 122
-1.124651 -0.426548 -0.483000 245 200 121
1.474907 -0.427373 -0.478558 248 209 117
1.110425 -0.418121 -0.476983 237 210 115
-1.174372 -0.413000 -0.484660 237 203 127
-1.109702 -0.410786 -0.482916 239 197 123
-1.155741 -0.405605 -0.488101 239 203 114
-1.104711 -0.406145 -0.483019 243 201 122
-1.075546 -0.402975 -0.480118 244 199 122
-1.190300 -0.401772 -0.482895 245 200 123
-1.160869 -0.401496 -0.484392 250 203 126
-1.279844 -0.392055 -0.483207 247 204 125
1.067738 -0.398157 -0.483156 247 209 116
-1.483607 -0.392164 -0.476852 238 196 117
-1.108107 -0.383185 -0.483321 242 212 129
1.084246 -0.388549 -0.483345 251 194 128
1.081232 -0.361292 -0.476830 241 195 114
1.457823 -0.352639 -0.476842 241 205 112
-1.173927 -0.252530 -0.483162 242 207 127
1.094995 -0.250883 -0.483132 238 202 131
1.123849 -0.255955 -0.483195 238 199 124
-1.106870 -0.250831 -0.476861 251 208 114
1.185498 -0.250423 -0.478116 240 207 131
1.202029 -0.241550 -0.483403 244 211 130
1.054053 -0.209812 -0.483207 251 197 113
-0.997872 -0.156274 -0.483699 243 210 131
-0.855128 -0.143433 -0.483036 243 212 118
0.989560 -0.149509 -0.480394 250 207 124
-0.985943 -0.143031 -0.477790 238 197 114
-0.978329 -0.129757 -0.483832 244 209 128
-0.976499 -0.122397 -0.483235 247 209 114
0.976673 -0.116735 -0.483543 251 208 129
0.970803 -0.085852 -0.483460 252 197 122
-0.755867 -0.066817 -0.476851 250 208 120
-0.900989 -0.074083 -0.483871 250 197 130
-0.916411 -0.059777 -0.483963 251 213 131
0.905193 -0.061312 -0.483322 252 207 131
-1.207588 -0.042655 -0.483369 237 213 121
0.711767 -0.038202 -0.473762 245 199 128
-1.204883 -0.032536 -0.483823 246 205 113
1.458569 -0.034021 -0.478521 249 199 123
0.848507 -0.035644 -0.483174 245 205 113
0.970925 -0.021176 -0.483309 248 198 120
-0.920507 -0.021851 -0.477436 245 211 120
0.971211 -0.014828 -0.477121 246 196 122
0.913788 -0.019595 -0.483166 247 207 123
-0.973649 -0.008597 -0.478567 247 203 119
0.798571 -0.001832 -0.480034 239 197 117
1.194597 0.005546 -0.481069 250 203 113
-0.625996 0.020353 -0.483219 248 205 114
1.464626 0.017300 -0.483226 249 200 116
0.773119 0.015502 -0.483250 243 202 121
0.766403 0.026411 -0.483378 240 211 118
-0.983177 0.036631 -0.483331 241 203 118
0.764899 0.032851 -0.480210 251 204 114
-0.765422 0.035887 -0.476869 242 212 115
-0.566369 0.046877 -0.485664 247 203 130
-1.475180 0.042306 -0.483877 250 205 119
-0.569796 0.047360 -0.483459 241 202 125
-1.457427 0.041271 -0.477349 252 194 113
1.205734 0.047114 -0.483180 245 204 119
1.425668 0.047033 -0.483519 241 206 122
-1.412528 0.051464 -0.480423 237 201 121
-0.534241 0.064066 -0.483459 243 195 120
1.410244 0.050072 -0.483441 250 200 122
0.994477 0.069409 -0.478449 241 197 115
0.759343 0.071701 -0.478537 251 214 120
-1.398646 0.074755 -0.478011 251 213 123
0.922617 0.078532 -0.473774 251 209 114
-1.210298 0.085054 -0.483481 250 194 128
0.759161 0.084681 -0.478506 252 208 113
-1.382647 0.080619 -0.483360 243 195 116
-0.467379 0.098801 -0.483207 246 196 122
-1.043349 0.103634 -0.483336 247 209 125
1.023035 0.098951 -0.473639 248 198 123
1.367880 0.086331 -0.477110 244 196 124
-1.056618 0.108886 -0.483343 248 209 128
1.037524 0.107113 -0.478398 241 198 117
1.169977 0.104875 -0.482017 250 194 128
-1.185231 0.113602 -0.483309 245 195 128
-1.082511 0.113794 -0.483336 237 211 131
0.917361 0.117253 -0.483441 246 195 132
1.082175 0.113653 -0.473786 251 213 126
1.102325 0.113027 -0.483217 246 196 117
1.324560 0.099578 -0.483355 249 210 113
-1.158086 0.115364 -0.483273 244 197 114
-1.123828 0.115852 -0.483294 250 213 130
-0.417483 0.118534 -0.470650 241 204 114
1.286714 0.112979 -0.477037 237 193 114
0.768708 0.124744 -0.477176 248 209 128
-0.891491 0.131991 -0.483732 247 199 113
-0.778816 0.131094 -0.482973 244 199 115
0.911808 0.131719 -0.477146 247 213 117
-0.865660 0.138530 -0.483637 251 200 116
-0.839654 0.139311 -0.482383 251 204 118
0.778602 0.138497 -0.483565 247 213 125
-1.218655 0.134987 -0.483244 250 212 123
-0.803206 0.141240 -0.483240 243 207 124
-0.358052 0.141968 -0.483153 243 197 116
0.877985 0.145884 -0.482812 250 202 118
1.224771 0.135665 -0.480144 245 203 130
-0.326005 0.152987 -0.483166 246 213 117
0.859324 0.149927 -0.482838 238 211 121
1.210843 0.142034 -0.483358 242 212 127
-0.314011 0.156761 -0.483190 250 205 128
0.301079 0.153692 -0.483208 243 203 119
0.815920 0.156608 -0.483201 243 213 129
1.205300 0.145875 -0.480016 248 196 130
-1.163903 0.150643 -0.470824 240 200 127
1.132282 0.153635 -0.483189 238 210 124
-0.276417 0.167676 -0.483168 239 203 119
1.083624 0.161089 -0.483099 244 211 128
1.116739 0.155098 -0.483172 251 203 125
-0.241857 0.176850 -0.483175 237 209 117
-0.226115 0.180258 -0.483147 251 199 119
1.050771 0.170668 -0.480114 241 194 113
-1.055016 0.176727 -0.483375 241 205 128
0.167925 0.186819 -0.478489 240 199 121
1.031851 0.173989 -0.483229 246 198 123
-1.026076 0.181482 -0.470887 251 207 121
0.136628 0.192677 -0.478435 241 195 113
-1.004044 0.186423 -0.483244 243 209 116
-0.107682 0.202378 -0.483166 243 211 120
-0.942052 0.195892 -0.477182 237 201 120
-0.080676 0.206572 -0.480055 250 208 121
-0.034286 0.207967 -0.483250 246 209 114
0.019017 0.207470 -0.483192 245 198 113
0.071757 0.204814 -0.483031 239 209 130
-0.926520 0.197911 -0.483355 240 206 129
-0.046336 0.208965 -0.473851 237 199 113
0.893273 0.198047 -0.481669 249 207 126
0.826255 0.206077 -0.483333 237 194 129
0.794114 0.213576 -0.483222 239 211 117
-0.754675 0.222565 -0.483315 250 207 129
0.719945 0.226461 -0.483214 243 212 126
-0.689319 0.229895 -0.483472 237 211 132
0.682560 0.231638 -0.483183 243 194 119
-0.636322 0.238428 -0.483210 243 203 123
0.642096 0.236712 -0.483181 248 202 116
-0.552211 0.246872 -0.483259 237 197 114
0.554985 0.244852 -0.483040 250 209 119
-0.508828 0.248585 -0.477194 247 204 121
-0.478536 0.251356 -0.483274 243 202 119
-0.383960 0.253493 -0.477163 240 196 125
0.417937 0.250192 -0.483111 246 196 122
0.520517 0.247936 -0.483043 242 200 123
-0.325981 0.262221 -0.477158 252 204 124
0.319265 0.265254 -0.483249 240 205 128
-0.309662 0.267232 -0.483247 247 211 132
-0.270749 0.271311 -0.483271 250 196 116
0.308534 0.266349 -0.476984 242 199 118
-0.227770 0.276090 -0.483312 242 211 125
-0.162422 0.276923 -0.483217 243 214 115
-0.096764 0.278166 -0.483268 251 214 126
0.143005 0.277502 -0.483282 238 210 129
0.192817 0.273477 -0.483192 238 209 129
-0.015570 0.280248 -0.483261 244 205 121
0.062173 0.280388 -0.483274 247 209 123
-1.480496 -0.458897 -0.471850 251 209 121
-1.202417 -0.456165 -0.475831 242 209 112
-1.165391 -0.452681 -0.475999 240 213 119
1.198118 -0.456494 -0.477140 251 213 124
-1.486632 -0.451562 -0.476884 246 196 122
-1.168976 -0.446676 -0.476915 237 212 129
1.200242 -0.452510 -0.477125 243 195 113
1.165817 -0.443572 -0.472300 248 205 126
-1.202572 -0.441762 -0.464233 243 197 113
1.195043 -0.442354 -0.476930 243 210 119
-1.199711 -0.435130 -0.476633 240 203 128
-1.160978 -0.436227 -0.469286 242 195 130
1.497342 -0.427267 -0.473827 245 194 114
-1.474157 -0.426662 -0.473792 246 204 126
1.189547 -0.428647 -0.476834 240 196 115
-1.146695 -0.418879 -0.476723 241 199 114
1.474912 -0.420952 -0.473866 249 206 117
-1.471441 -0.407234 -0.473810 245 196 132
-1.151898 -0.408468 -0.475837 244 200 132
-1.170052 -0.404699 -0.475804 247 200 119
-1.104827 -0.406205 -0.476855 246 213 129
-1.075538 -0.404091 -0.471785 241 209 132
1.096057 -0.405665 -0.461388 246 202 114
-1.190669 -0.400551 -0.476867 246 213 120
-1.074797 -0.402330 -0.476269 251 210 112
-1.459707 -0.392383 -0.464468 238 198 120
-1.417200 -0.392433 -0.473845 243 212 125
-1.379781 -0.392211 -0.473836 247 213 126
-1.342301 -0.392149 -0.473839 247 198 118
-1.304827 -0.392002 -0.473839 246 209 115
-1.254920 -0.392061 -0.473848 244 207 115
-1.217347 -0.392259 -0.473815 247 213 112
1.188102 -0.393640 -0.473872 239 194 129
1.267065 -0.390663 -0.473860 244 201 124
1.304483 -0.390930 -0.473843 239 210 118
1.354444 -0.390829 -0.473833 240 203 112
1.391902 -0.391020 -0.473854 237 205 120
1.429328 -0.391210 -0.473843 246 213 128
1.466409 -0.390954 -0.470566 250 198 113
1.193399 -0.388923 -0.467606 238 206 117
-1.479781 -0.385496 -0.473707 250 194 116
-1.478993 -0.377936 -0.464378 238 203 120
1.087762 -0.385517 -0.477071 240 194 124
-1.478435 -0.371511 -0.470570 243 212 113
1.474217 -0.370421 -0.470798 246 213 113
1.467267 -0.368690 -0.470756 245 201 130
1.070215 -0.348030 -0.473792 245 202 132
1.061067 -0.337510 -0.473828 244 201 113
1.457819 -0.333794 -0.473843 251 205 119
1.043185 -0.317607 -0.473819 239 206 116
1.037192 -0.310951 -0.473842 243 213 124
1.018283 -0.292039 -0.473843 240 202 126
-1.461221 -0.286901 -0.473810 251 199 122
1.003692 -0.278360 -0.473359 241 213 114
-1.004436 -0.274827 -0.473827 240 206 125
1.457378 -0.268126 -0.473774 239 203 131
0.978877 -0.255981 -0.473864 248 213 117
-0.971949 -0.244747 -0.473824 252 201 115
-1.167655 -0.252554 -0.472189 251 197 119
-1.133635 -0.252605 -0.469366 246 213 126
0.955557 -0.235584 -0.473851 242 196 129
1.142693 -0.254524 -0.473861 249 203 121
-1.461077 -0.236958 -0.473824 250 211 122
-1.189595 -0.251866 -0.476864 243 212 128
1.091221 -0.247283 -0.472195 237 211 130
1.197255 -0.246316 -0.479187 248 214 130
-1.082991 -0.238053 -0.477025 242 208 130
1.082689 -0.237662 -0.473776 245 206 124
-1.460984 -0.224489 -0.473791 241 205 127
1.077538 -0.231902 -0.473756 238 214 118
-0.940148 -0.215776 -0.473818 251 209 117
1.457237 -0.218223 -0.473839 244 205 123
1.202767 -0.215163 -0.473876 251 210 120
-0.919190 -0.197563 -0.473782 237 194 130
-1.460874 -0.199496 -0.473869 246 210 129
-1.209016 -0.193335 -0.473761 251 212 131
0.905487 -0.192200 -0.473905 248 205 112
-1.038447 -0.192155 -0.473792 245 207 131
1.202855 -0.187067 -0.473864 238 206 115
1.457187 -0.180789 -0.473836 251 200 131
0.883226 -0.172302 -0.473828 239 210 122
-1.209319 -0.168348 -0.473762 237 209 125
1.457139 -0.168271 -0.473831 243 201 112
1.016669 -0.177855 -0.470752 248 196 130
-1.209442 -0.155804 -0.473761 247 197 122
-0.868572 -0.155101 -0.476698 244 202 126
